# 3D point list with one line of data per point:
#   POINT3D_ID, X, Y, Z, R, G, B, ERROR, TRACK[] as (IMAGE_ID, POINT2D_IDX)
# Number of points: 376, mean track length: 4.5749547626780496
6915 3.3249157110352758 0.6532606344567482 6.6431758839737416 168 169 167 0.93276393256370971 27 9924 26 9787 25 9562
6914 1.530771114089496 -0.52663608976661347 14.501669463411282 112 111 90 1.4433654486005898 27 9907 26 9769 25 9548
6913 7.3214094721213518 -1.7441570012452037 14.088285260323199 75 79 64 1.6150520965009887 27 9897 26 9763 25 9538 24 9301
6912 8.0151940480021473 -2.0385976769395602 12.559282562763775 36 32 46 1.2520115591384753 29 10361 30 10215 26 9760 28 10338
6911 4.2607343620603384 -2.481455935898528 12.239246509900374 57 61 62 1.5110926219595464 26 9749 25 9573 24 9418
6910 4.7645926656952913 -2.7311539656097659 12.612170366932972 255 255 255 1.9099213912961932 27 9890 28 10324 26 9748 22 8731 29 10341 27 9817
6909 3.6530908967487026 0.76092957303995301 3.1033023140998974 182 169 152 0.49726368424999356 27 9888 26 9747 25 9529
6908 3.5284525356531509 0.67626637476572848 3.9495325125502885 236 236 236 1.8503124640202093 27 9883 26 9741 25 9518
6907 3.8281014425707003 0.64648355189121876 4.009835855403189 87 92 79 0.53971759122974361 27 9792 26 9734
6906 2.0997620022339052 0.38574539793340379 5.7263027595635521 136 157 178 1.6118192622361955 25 9496 24 9399
6905 1.941687992101466 0.38779457405348988 6.3387336858720715 137 158 181 1.3800210382029674 24 9331 23 8852 22 8783 21 9045
6904 0.58343978903987981 -1.2186996384648825 15.168388485158554 57 66 45 1.885331540988574 27 9843 26 9699 25 9477
6903 8.4665365387679632 -1.3548407395703261 12.858696180979713 49 53 52 0.38552483210629862 32 8861 26 9695
6902 7.4964615373021957 -2.4530001381371611 13.748254435917753 117 119 132 0.97117889703810156 27 9821 26 9674 24 9289 23 8807
6899 2.9129105464020681 0.73664252084581128 3.7482018395499672 174 162 143 1.7823471782923144 26 9660 25 9438 24 9271 23 8790
6898 4.1926317559456052 0.40102532574826288 11.985124082035721 254 255 253 1.3823966762252979 27 9764 26 9628 25 9397 23 8844 22 8777 21 8950 20 9216
6897 4.5039795414147044 -1.1933830404319323 11.839821598449053 63 67 60 1.470915130403545 27 9737 26 9581 24 9215 23 8743 22 8509
6896 2.7743068855634547 -2.0516714817362169 13.100298106851014 242 248 246 2.0728663439212975 27 9717 26 9567 25 9146
6895 7.5745019084018104 -2.2169536211605343 12.931564072857775 57 61 62 1.673996325998913 27 9708 26 9563 25 9142 24 9020 23 8550 20 8994 19 9011 18 9118 17 9375 16 9272 15 9162 14 9245 13 8991
6894 7.7345026555491909 -2.2308710274656915 12.895374752227575 57 65 58 0.54600602506404317 27 9709 26 9562 25 9344 22 8633
6893 1.3766233352410693 -2.1610295589748061 12.703826177884503 227 228 230 0.48657874699929266 27 9707 26 9560 25 9129
6892 6.9918414601068335 -2.3746310829837411 13.285218859962717 255 255 255 0.16575727664823606 27 9703 26 9557 25 9342 24 9194
6891 6.9918414601068335 -2.3746310829837411 13.285218859962717 255 255 255 0.16575727664823606 27 9702 26 9556 25 9341 24 9193
6890 8.1210315431720517 -2.520027911750196 11.90589946284282 67 75 64 1.3256924949632078 26 9553 25 9331 24 9190 23 8721 22 8630
6888 3.5196634344747277 0.74523534187358009 3.5080365345499218 202 189 173 1.1545678490712723 27 9651 26 9532 25 9299
6887 3.5196634344747277 0.74523534187358009 3.5080365345499218 202 189 173 1.1545678490712723 27 9652 26 9531 25 9300
6886 3.5244473018526579 0.72298938726738693 3.6604924304417192 95 107 60 1.1133140586385657 27 9643 26 9522 25 9294 24 9270 23 8788 22 8711
6885 2.3247092713531003 0.66908917160447789 4.8417833822439738 110 134 72 2.2941700953024529 27 9630 26 9514 25 9281
6883 4.161714158354572 0.81331959261076148 5.8299939305271415 246 248 247 0.52134874175045098 29 10323 26 9511
6882 2.9124329266327256 0.71145215791072247 5.7606807094686019 215 213 202 2.023118519593111 27 9627 26 9507 25 9066 24 8931
6881 2.8883893805144778 0.7125914330334302 6.8854770153121141 170 171 175 0.64558757843997405 27 9400 26 9497 25 9267 24 9138 23 8677 22 8701 21 8970
6879 7.5585137863091765 -1.6876190902081678 13.741516963983418 70 79 76 1.778488654778847 29 10089 26 9422 25 9167 24 8795
6878 7.3312587794879303 -2.5696217787075546 13.475705376729145 70 82 64 1.4015218620121097 27 9487 26 9387 23 8544 21 8693 19 9002 18 9108 17 9369 16 9442 15 9340 14 9389 13 9145 12 9146 24 9010 6 8800 5 8717 4 8488 3 8248 2 8036 1 7907
6877 7.1054028112748142 -2.5575469227318175 12.628165071989718 254 254 254 1.5882328843609588 27 9482 26 9383 25 9121 24 9005 23 8540 22 8210 23 8323 21 8462 20 8361
6876 7.1182864865963928 -2.5587608869821463 12.671512151936009 254 254 254 0.83582046565863244 27 9481 26 9382 25 9122 24 9006
6874 3.8468305276126435 0.7436818844894163 3.3363124908743451 96 112 73 1.5943624114334782 27 9447 26 9351 25 8812 24 8253
6873 3.4972735092497365 0.75458281519021753 3.5622657125376707 227 211 196 1.6048161889214825 27 9440 26 9347 25 8809 24 8966 23 8511 22 8137
6872 4.2756775631924766 0.73660521711915339 3.3769653042269665 225 210 191 1.9957378357458602 27 9442 26 9345 25 8803
6871 2.3650748351673792 0.76698506128489896 3.9669005494089471 191 176 153 2.4604124991744776 26 9344 25 9297 24 9166
6868 4.9670477461243072 0.72395312050603045 3.4875922708842557 174 194 117 1.2854630422008717 27 9430 26 9335
6867 2.9383432850540032 0.72194497913467837 4.0006277995653727 165 163 111 1.265404584093778 27 9427 26 9332 25 9086 24 8946
6866 5.7768714268847665 0.74602920716346299 4.5074176358592748 232 228 216 1.9036757053394371 27 9420 26 9323 25 9077
6865 3.3406621465661277 0.67882226650958999 6.5321482853857376 177 178 173 1.2346850344967126 27 9399 26 9306 25 9264
6864 2.0508500871149669 0.50567153142457388 5.9969219457063456 146 164 186 1.1565256447112451 27 9604 26 9295 25 9254 24 9125 23 8665
6863 1.5889830711041983 0.59290782098233674 7.2138290245120276 87 116 68 1.5681653671668112 27 9382 26 9293 25 8737 24 8617
6862 5.3073233946653415 0.59348794922107084 6.8508610479749796 234 228 213 2.2490188871030674 26 9289 25 8725 24 8125
6861 5.3300657127590112 0.64424237124271244 7.7770540663560626 161 161 162 1.0576943187010572 27 9050 26 9283 25 9038
6860 1.3516939080422132 0.35090125943178058 8.3510636512638339 64 67 72 0.41279864397546789 27 9368 26 9261 25 9015
6859 5.2013941527644452 -0.13976833041359865 8.1867173137956559 71 51 63 0.40155625807957002 27 9342 26 9240 25 8990
6858 3.3456515656120995 -0.8756588181897782 10.572789463537964 59 82 57 0.85299803442708855 27 9290 26 9190 25 8954 31 9030 30 9667 32 8506
6857 6.8788723323163437 -1.7556065816184392 16.589384339769399 164 185 99 0.82543341707675755 26 9173 25 8605 24 8803
6856 5.0054406254147965 -1.7349529575359199 14.335586778326499 131 131 140 1.5659323427469067 27 9256 26 9161 25 8936 24 8451 23 8033
6855 6.7712242007476098 -1.8211851436771296 12.807080157892798 254 255 253 0.22814942419800679 27 9241 26 9151 25 8919
6854 4.2640664345337935 -1.9329540394504763 13.162782822216453 252 254 253 0.26092975933332768 27 9232 26 9143 25 8910
6853 4.5328418029683002 -2.0036530812950764 13.100162800358621 64 69 65 1.3373873993812133 27 9223 26 9139 25 8906 24 8771
6852 4.383459303114126 -2.0388553471047621 12.569933441443069 63 68 79 0.1596279908764264 27 9213 26 9128 25 8899
6851 7.4176803521305326 -2.6740092484313185 13.098374177717611 252 254 251 0.64021759797422195 27 9178 26 9093 25 8871
6850 8.6966114741537552 -2.6825361843679927 11.819049238746471 253 254 255 1.4386888144233012 27 8781 26 9086 25 9116
6849 4.1242022536146949 0.7588703687859194 3.1357423714029276 168 197 88 1.1105023391586755 27 9141 26 9057 25 8823
6848 3.0918365955525382 0.76653802064925669 3.3987378094226668 184 200 129 2.1343462282413621 27 9134 26 9054 25 8829
6846 2.7509455120421094 0.77468228504783143 3.6007062643484984 188 177 154 0.7509874499307384 26 9048 25 8820 24 8269
6844 2.8237429686453512 0.73494631996266291 3.8145618580962268 152 185 84 1.1733325765557616 26 9037 25 8798 24 8681 23 8255
6843 3.0226949148901858 0.71300509020597758 3.864553209215162 131 142 73 1.1361332214023627 26 9032 25 8791 24 8234 23 7808
6842 2.9222782716048012 0.71248886687879909 4.1433966384516019 172 168 133 1.3282381193436223 27 9104 26 9026 25 8787 24 8669
6841 2.5632283979109087 0.70997340107264806 4.4164040037222154 207 198 172 1.4606414154371166 27 9099 26 9024
6840 3.1508547543689494 0.68704632989163361 4.1561527910031222 161 194 97 1.0411176503758748 27 9100 26 9023 25 8782 24 8665
6839 2.1440107574942497 0.69774407683708317 4.9331174350350331 123 144 87 2.1477541133330984 27 9087 26 9015
6838 4.119411195584199 0.57436352013175518 3.6567172533932344 255 255 254 0.57830880325061285 27 9088 26 9010 25 8321
6837 4.794457153046527 0.72436140491876633 5.4535959956775386 232 224 213 0.19423925205589021 27 9080 26 9000
6836 1.5079751063317248 0.61823625497102208 6.6087813561956334 91 103 67 1.7475977208806963 27 9065 26 8984 25 8281
6835 3.6209614140593445 0.64272364198847465 7.1789706249386098 185 182 177 1.6115562755636672 27 9061 26 8976 25 8739 24 8616
6834 3.7096988943050961 0.64382791237099068 7.6305921469640134 214 213 202 0.53758142914518103 27 9053 26 8974 25 8731
6833 5.4174871533058786 0.49856234402643479 6.8447163915645675 200 193 183 1.4721484596047554 28 9594 21 7190 26 8958 22 4078
6832 6.4679640122604347 0.30278788585438887 6.8457124689204623 168 178 190 2.4096139303142858 27 9023 26 8941 22 8020 21 8284
6831 5.7990410582345469 0.27835879152854009 7.2112316198457087 36 33 52 0.43079517377423615 27 9019 26 8936
6830 3.7151646716780249 0.22194393209651378 11.336250670759071 113 107 119 1.2441972647285189 27 8999 26 8921 25 8686 24 8568 23 8142 22 8010 21 8273 20 8527 19 8542 18 8983 17 9219 16 8835
6829 3.8685706213716835 -0.22258099336110265 11.265227818335315 68 60 68 0.66964430469345881 27 8488 26 8907 24 8545 23 8117 22 7978 20 7999
6828 8.4694090128072137 -0.34592394236497437 11.06330543210532 31 43 27 0.95378662424582716 27 9331 26 8895 25 8667
6827 4.5401750730553463 -0.50681548541202104 14.516574867698969 38 47 54 0.84313411163302587 27 9323 26 8890 25 8660 15 9224 16 9337
6826 10.85262660947812 -1.8279746360111013 16.450627419688018 90 89 103 0.46774373433766869 34 7782 25 8598
6825 12.186225936019907 -2.0967290221050643 19.303607546450593 86 84 100 1.0142944946558115 27 8905 31 8677 26 8833 25 8599
6824 6.7285706985593752 -1.8249316649134031 12.420211580857043 233 234 229 0.64331652741083889 27 8874 26 8799 25 8552 24 8425 22 7357 21 8161
6823 7.0234542964456583 -2.2970238351642061 16.207239184170756 66 79 75 1.0009136005191499 27 8872 26 8798 25 8550 24 8423 23 8002 22 7877 21 8158 20 8410 19 8417 18 8526 16 8690 15 8565 14 8647 12 8373 11 8613
6822 7.0234542964456583 -2.2970238351642061 16.207239184170756 66 79 75 1.0009136005191499 27 8871 26 8797 25 8549 24 8422 23 8001 22 7876 21 8157 20 8409 19 8416 18 8525 16 8689 15 8564 14 8646 12 8372 11 8612
6821 0.685194564053067 -1.8967404547464324 13.405360587431112 78 79 76 0.49003032983927741 27 8873 26 8793 25 8544
6820 5.5216484002975665 -2.1737162021795511 14.215933925836231 254 254 253 1.2542456117276037 27 9220 28 9385 26 8786 29 9428
6819 6.8418500147566519 -3.0125286880333948 16.487798926108752 254 255 252 0.20299109318219904 27 8817 26 8759 25 8497 24 8369 21 8121
6818 6.8418500147566519 -3.0125286880333948 16.487798926108752 254 255 252 0.20299109318219904 27 8818 26 8758 25 8496 24 8368 21 8120
6817 3.9679041383159293 -2.6744611477844757 13.388551184734782 239 240 244 1.0684049502288238 27 8202 26 8740 25 8474 24 8352
6816 7.0067569656989415 -2.7133887728413897 12.733304020873398 63 71 74 1.5094574435955987 27 9173 26 8733 25 8473 24 8734 23 8311 22 8201 21 8448 20 8971
6815 6.8438645115148287 -2.737662420438852 12.855193209749315 244 245 243 0.55180725068944636 27 8790 26 8732 25 7859
6814 8.5508064676941107 -2.8610457074246458 13.011964523962051 183 190 191 0.95425211780317698 27 8783 26 8729 25 8471 24 8349 23 7944 22 7820 21 7581
6813 8.545482353296606 -2.8575705883636116 12.99874381711661 183 190 191 0.94859543727552775 27 8784 26 8728 25 8472 24 8348 23 7945 22 7821
6812 7.3581623758943273 -2.9195207556337004 13.212480829352254 54 55 57 1.2459622177480831 27 9168 26 8725 25 8467 24 8340 23 7938 22 7814 21 7570
6811 3.2390566575368296 0.76763700900178344 3.206469098945758 194 222 113 1.838251409706265 27 8740 26 8690 25 8836
6810 4.3496789886870628 0.74246962162138341 3.3199366307798788 170 183 111 2.1170976509105723 27 8720 26 8667 25 8383
6809 3.7461856247314711 0.73719438944382232 3.5258733918319738 218 210 191 1.2045921551548897 27 8714 26 8659 25 8374 24 7567
6808 4.3273030543195645 0.7166348701843861 3.4232583571675379 143 146 147 0.71681369264033745 27 8705 26 8641
6807 3.1116351696076054 0.73087397150781075 3.791234306078151 116 124 67 1.4120046879415711 27 8697 26 8640 25 8370
6806 3.6967150732164034 0.71151388157908302 3.5898294822382013 166 188 110 0.40290696678399679 27 8698 26 8638 25 7690
6805 4.6186518008961777 0.68227156465923122 3.6230349697802415 254 255 254 1.0734458847222266 27 8686 26 8621
6804 5.614116899905139 0.77781927160743281 4.3153084603911847 235 232 223 1.368970665119007 27 8683 26 8614
6803 4.563930618503699 0.76682843490680963 4.4837990270735943 224 220 209 2.0725852660142654 27 8681 26 8613 25 8343
6802 2.4913289866809936 0.68227215781471784 4.696477481253563 173 204 116 1.4380884743466185 27 8658 26 8598 25 8332
6801 6.1419095348422514 0.74830565113944603 4.9076958507357249 227 223 214 1.858443598956333 26 8589 25 7616 27 8657
6800 2.4827662993758244 0.66242739689646846 4.9829234835554823 127 136 73 1.9191976526985486 27 8646 26 8586 25 8316 24 8190
6799 4.1730175909556984 0.47457670159732596 3.6147849833073735 100 117 127 1.4216843304916642 27 9076 26 8569 25 8751
6798 4.1196955714707872 0.68146722877076849 5.7571929053815749 97 115 125 2.0811478732083488 29 9197 26 8564
6797 6.4622312082603104 0.69104698444958945 5.8579720935636903 216 214 202 1.6845875872585636 27 8622 26 8559 25 8285 24 8149 23 7005
6796 2.2591060137131653 0.59397431505195553 5.6384413849512196 30 44 52 1.4552909541034929 26 8557 25 8290 24 8157 23 8199 22 8087 21 8329
6795 6.1811711021038098 0.54573589655700649 6.1851184139463991 248 255 254 0.54012221245689707 27 9052 26 8537 25 7533
6794 1.2707865243639227 0.46041725054837729 8.0318594211068586 137 148 160 0.60389304018122936 28 9070 26 8515 25 8249
6793 3.9540950237433883 0.57917334512438712 9.3150938551839229 153 157 158 0.81993243585860198 28 8263 26 8514 25 8247 24 7332 25 7487 23 6932 23 7679 22 6871 20 6229 19 6175
6792 6.7578537512927701 0.41332805305126419 6.7224564889489686 112 117 136 1.3907240000722254 25 8235 23 6902 21 6003 22 5712 19 4305 17 1848
6791 1.8378017608522141 0.33700235487371138 6.4922606716516729 132 151 173 1.1820047946029664 27 7790 26 8505 25 8712
6790 2.4530034444029956 0.29193875671726871 9.3531163862162199 67 65 76 0.84050027354950441 27 8534 26 8473 25 8200 24 7262 23 6874 22 6814 21 5955 20 6117
6789 1.6859491440048477 0.16523203469910661 8.7388366283202377 71 65 73 1.4739224147735182 29 9077 25 8191
6787 6.3349116635376888 -0.42872852780551829 7.3619857343899744 242 236 237 0.32228038562567041 27 8455 26 8388 25 8121
6786 4.5092498595114581 -0.71477793397141853 12.487610724417143 78 64 54 1.5631667990955758 27 8951 26 8376 25 8106 24 7965
6785 1.9755327498988033 -0.94394000980768722 10.776204288362662 40 56 43 1.3746056076039146 27 8403 26 8335 25 8059 24 7933 22 7410
6784 2.2071940435485908 -1.0935062725205436 10.808991035858501 55 90 44 0.81962428387916653 27 8387 26 8317 25 8038 24 7916 23 8047 22 7918
6783 12.396901318268936 -1.8570497247893896 19.352774584391486 241 220 220 1.9722461789834986 31 8130 32 7444 26 8316 25 8042
6782 10.517323695212442 -1.6897032961246505 15.565678282774661 0 0 0 0.11872242208975398 27 8369 34 7019
6781 7.5223584381012287 -1.685321794384889 14.179031981559051 218 223 216 0.095849640969597028 27 8354 26 8284
6780 7.9319560141919503 -2.1535149187946616 13.149514070271961 251 255 252 0.7258923972546989 27 8277 26 8200 25 8535 22 7336
6779 8.9827638228724318 -2.0841673169847819 12.360711205965142 190 195 194 0.63591929024424443 27 7361 26 8199 25 7939 24 7838 23 7398 22 7341
6778 8.7622258495192025 -2.0933914247592535 12.102140825538157 80 93 80 1.1083422352098928 27 8261 26 8192 25 7937 24 7833 23 7394
6777 8.9282979867881913 -2.1174669019980423 12.190059334613586 55 63 52 0.96794210521558244 27 8852 26 8191 25 7934 24 6910
6776 0.73093833354825621 -2.3380124140359158 14.185042698856067 56 61 41 0.71206573094720094 27 7341 26 8178 25 7920
6775 0.57164649257269373 -2.358076266123962 13.911019928312937 71 76 69 0.25177256713008339 27 8250 26 8174 25 6987
6774 0.56088036264366448 -2.4478158609065255 14.200943469026154 98 105 90 0.46087163859208813 27 7321 26 8168 25 6977
6772 6.1567459128560351 -2.9366682114726506 16.166392571908741 91 102 94 0.34511077550308422 30 8594 26 8157 25 7901
6771 6.3644793699562507 -2.4548413585830442 13.014798503514127 252 255 254 0.24831009813138266 27 8233 26 8155 25 7902 24 7795 23 7367
6770 6.7634602896204807 -3.0219368888530918 16.507047626633167 255 254 255 0.20490283597999784 27 8232 26 8154 25 7899 24 7789 23 7363 21 7610
6769 6.7891170812198585 -3.0842451089812326 16.466194966358866 102 104 101 0.29589221078859873 27 8222 26 8131 24 7783 23 7356 22 7287
6768 7.5223918353886834 -2.5850373147089942 12.99510622146159 75 88 70 0.86755776413480656 27 8214 26 8128 25 6950
6767 3.9248245829820121 -2.6062750192640252 13.417753755625107 54 55 49 1.0673814001068516 27 8212 26 8124 25 7871 24 7764 23 7338 22 7267 21 7578 20 7731 19 7783
6766 7.6511799115044345 -2.8535084262355883 13.179226914556192 254 255 252 0.87182720769817157 27 8786 26 8099 25 7852 24 7753 23 7326
6765 6.4804539048837446 -3.3326496517421709 16.016103378547221 111 126 120 0.86096498112810849 27 8189 26 8096 25 7848
6764 5.299309887491864 0.74411868692619432 2.9355032674956032 160 206 63 2.933782198904991 27 8096 26 7991
6763 3.3317198568038822 0.74876198635463265 3.4710487960797152 139 127 101 0.98892395291339041 27 8069 26 7986
6762 3.1777296437295863 0.7405957602114992 3.6661683999347159 164 160 124 1.8094301191119448 27 8039 26 7960 25 7720
6761 2.9482272085596195 0.746739708587423 3.7609896183015574 146 148 99 1.867360117064375 27 8031 26 7952 25 6710 24 6567
6760 3.4552067802661885 0.72832008225575007 3.5763740810718012 193 208 148 1.0683501561202979 27 8037 26 7951
6759 2.786807184525343 0.71768218531036787 4.2410035543539335 191 211 122 1.6952368313965873 27 7992 26 7911 25 7668
6758 1.8506963960431688 0.72098497824659258 4.7160048790454834 96 120 65 1.0825849347609329 26 7896 25 7657
6757 5.4225922036325427 0.77169540820490368 4.4195476072462467 184 181 172 1.2438705497903362 27 7989 26 7895
6756 5.4452342607098414 0.77289731877900292 4.4739794679435088 184 181 172 1.5840218172934113 26 7894 25 6613
6755 3.6875187143614494 0.74667631116661148 4.8701580724819831 160 156 147 0.28894806616295238 27 7976 26 7882
6754 5.3779021989113254 0.73788626334391039 4.6897594244015632 237 234 225 1.9619401395974194 27 7975 26 7872 25 7626
6753 5.6965905455258268 0.74191529376413246 4.8984459145622425 239 232 222 1.8316801270440344 26 7864 25 7617 27 7966
6752 2.9086018736291512 0.73965689266791257 5.5065180076813283 213 209 200 0.70389645242245702 27 7960 26 7861 25 6563
6751 1.8320146021640811 0.70031371252850549 5.3765032127390358 99 131 70 1.9854511622101594 27 7954 26 7859 25 7624
6750 2.0395287674589166 0.68594881301012689 5.2743834954446145 116 135 88 1.778083077932558 26 7855 25 7622 27 6831
6749 2.0395287674589166 0.68594881301012689 5.2743834954446145 116 135 88 1.778083077932558 27 6830 26 7854 25 7621
6748 2.6967762731800278 0.6810154190500548 5.422739251058398 194 198 205 2.1089057504418403 27 6806 24 6408
6747 3.2523176900482387 0.68583377865588924 6.466594055163374 163 162 159 0.57166819676845815 27 7907 26 7803 25 7576
6746 2.9072747245553532 0.70335618262753685 6.7620784689303202 173 174 176 0.72576871182956981 27 7905 26 7802 25 7573 24 7431
6745 1.7608922842781078 0.63835553815953383 6.6393062065460278 76 74 79 1.3970850649462814 27 7892 26 7794 25 7569 24 7428 23 5906
6744 2.5903562318598192 0.68212267266130544 7.1064185089680603 140 141 143 0.34176522414374794 27 7891 26 7791 25 6455 24 6288
6743 2.0785617106870466 0.55925711719610638 5.9620885152949956 21 25 41 1.3716584399112515 27 6732 26 7788 25 6449 24 7415
6742 7.1213567790377121 0.68061624989013725 6.4103577555259905 177 176 172 2.0712934314929798 27 7895 26 7785 25 7554 24 7393
6741 2.2403413796064737 0.61342112134181903 7.8596313616523865 85 94 99 0.47812086675952808 30 8225 26 7756 25 7540
6740 5.4893131005911968 0.48528077837962874 6.559800606616025 206 206 196 0.67796635095403346 27 7839 35 4022 26 7739
6739 1.3917049884333759 0.47505479661960354 7.9579267249194388 57 65 76 0.34056437435754489 27 7813 26 7724 25 7494
6738 1.449727724511445 0.45610563607023702 7.9435745219131597 46 49 58 0.34912142724969192 27 6600 26 7716 25 7486 24 7333
6737 4.0808454054975414 0.47639180596872921 9.3426867647874214 101 110 125 0.4005821135173549 27 6572 26 7698 24 7300 23 5725 22 5716
6736 8.3877476956794652 0.49708089289334534 9.1397048676400825 164 165 167 0.34540134396100042 27 7783 26 7692
6735 5.7368208149126314 0.25903151813734016 6.626039711616647 101 105 114 0.78957677908473944 28 8208 26 7664 25 6230 23 5664 22 5646 21 5935 19 4213 18 1819 17 1745
6734 3.7669476028715891 0.37359871881444306 11.377125383920077 252 255 253 0.86647022147171082 27 7738 26 7650 25 6215 24 4207 23 3906 22 1522
6733 5.7780891044327216 0.0078252759918939416 6.6480897949667996 81 65 68 1.9025109792552539 31 9080 26 7614 24 4107 23 6840 22 5593 21 1425 18 4287 17 1620
6732 4.6608238805705042 -0.1458822681727287 8.2785630059128366 142 123 119 0.9272587249798333 28 8129 26 7601 24 5983 23 6828 22 6764 21 7094 20 7229 19 7200 18 8154 17 7594 16 7547 15 7448 14 8289 13 7317 12 7296 11 7459 10 7633 9 7482 8 7306 7 7018 6 7122 5 7065 4 6800 3 6531 2 6361 1 6245
6730 6.1071550799121637 -0.28054811994952022 7.2554306644601372 62 60 64 1.1917527645512922 27 7659 26 7580 25 7353 24 7188 20 5998
6729 3.7103707968658455 -0.54871225616336794 14.158271194801721 70 71 66 0.25844370946635059 27 6353 26 7567 25 7336 24 7180 23 6791
6728 9.2937706907462339 -0.47925803208077977 11.488851032040147 22 34 31 1.2254921835030754 32 6780 26 7566 25 7338 24 7182 23 6793
6727 4.2660445432664984 -0.61593197256141907 12.8015492126117 73 66 49 0.57899316013908952 28 8054 26 7553 23 6776 24 7977 22 6715
6726 5.7437422047987887 -0.69615631357015961 13.211976254534301 52 62 47 1.1270231004949571 31 6126 26 7543 25 6005
6725 0.802890171512184 -0.76660380446983867 14.236909138595784 82 75 59 0.23131134331047307 27 7616 26 7531 25 7297
6724 9.0351368468423381 -0.66595960580200164 11.361446686542287 47 61 49 0.70365673512188931 27 7611 26 7529 25 7300 24 7151
6722 0.71516856324346656 -0.934724934588683 14.341640567119299 141 142 128 1.1243755031672393 27 7594 28 6648 26 7507
6721 7.648911538165259 -1.3017340489060705 13.86890395664229 67 60 52 0.91975322081311195 27 7536 26 7453 25 5876 23 6695
6720 2.5085460256417043 -1.0670298743856035 10.55857600533966 62 100 53 0.94925695112590447 27 7523 26 7445 25 7197
6719 8.3911922359850681 -1.3445718334753924 12.971093518944343 33 33 33 0.82852287448176476 27 6128 26 7437 25 7193
6718 6.6215945439620629 -1.7819512906320587 13.519642408950574 110 128 112 0.59809214740332028 27 7447 26 7361 25 7124 24 7001 23 6632 22 6566 21 6870 20 7019 19 6970 18 7151
6717 7.643032519141979 -1.7557249827461598 13.147659140423976 253 254 251 0.58979765377994331 27 7444 26 7359 25 5742 19 6976 16 7330
6716 8.9674253390737082 -1.7790890836879005 12.729487412682204 69 93 79 0.76238491173798939 27 7437 26 7349 25 7114 24 6998 23 6630
6715 6.6233449771611399 -1.9285299128621463 13.053295236383413 75 87 77 0.42913006681790267 27 7405 26 7315 25 7083 24 6959 23 6585
6714 6.6233449771611399 -1.9285299128621463 13.053295236383413 75 87 77 0.42913006681790267 27 7404 26 7314 25 7082 24 6958 23 6584
6713 7.118880866940076 -2.3282903926666876 16.19319647743356 111 116 109 1.0389330209816876 27 7402 26 7313 25 7077 24 6956 23 6581 22 6514 21 6821 20 6976 19 6922 18 7102 17 7306 16 7263 15 7177 14 7262 13 7070 12 7029 10 7328
6712 7.0699333501546953 -1.9578700697928191 12.697467044616921 248 253 249 1.1073201869927387 28 7785 26 7300 25 7067 24 6943 23 5148 27 5919 22 5167
6711 4.9071885280898639 -2.1490355377657795 13.142822394264337 240 252 253 0.26916552198470167 28 7749 29 7810 26 7264
6710 5.9853935555661018 -2.635379524164144 16.228621806246682 78 93 96 0.25392714739536476 27 7349 26 7253 25 7021 24 6904
6709 6.5639180592140667 -2.7458610750441803 16.754552435410687 83 89 87 0.45933504079546422 27 7348 26 7249 25 7016 24 6898 23 6530 22 6482 21 5414 20 5563
6708 6.6296094495759723 -2.8031624825861488 16.725623043747525 82 85 92 0.21517314305656568 27 7338 26 7238 25 7004
6707 6.6296094495759723 -2.8031624825861488 16.725623043747525 82 85 92 0.21517314305656568 27 7337 26 7237 25 7003
6706 7.444687032818881 -2.406701115573052 13.348455625716142 65 72 75 1.0150715556796563 27 7316 26 7224 25 7917 23 6520
6705 6.4283640188781597 -2.4056738546330427 13.157268162135765 92 100 89 0.37566084439006392 27 7306 26 7212 25 6984 24 6874 23 6504 22 7302 21 6759 20 6898 19 6833
6704 4.3769488039995119 -2.4136929110298806 13.076399161552928 251 255 252 0.63987834688804557 27 7296 26 7200 25 6966 24 6854 21 6730
6703 6.3737762832772349 -2.4090643792826323 12.296360986910004 123 142 113 1.9137626999022177 29 3767 26 7181
6702 3.9665761064436191 -2.5674183673857986 13.408316136330326 252 255 254 1.1046476989982543 27 8219 26 7179 25 6947 21 7584 19 6774
6701 3.789140056769047 -2.6710023069935582 13.463488153127946 60 59 60 1.1268462611051806 27 7242 26 7161 25 6932 24 6810 23 4958 22 6405 20 6839
6700 7.1068726611410922 -2.9209634383592133 13.163256597323191 86 98 84 0.31583527816450535 27 7195 26 7125 25 6905
6699 5.9097715905363009 -3.5145796120566866 16.402517405384003 123 125 122 0.41148336789485168 27 7192 26 7120 25 6899 24 6778 23 6429 22 6374
6698 7.1648327288896843 -3.021123694004324 13.24710647549826 73 71 84 0.58131115272996203 27 7179 26 7116 25 6888 24 6773 23 4911 22 4922
6697 6.5205929753412768 -3.6013459433689672 16.315264929575822 123 129 117 0.42138462855452197 27 7178 26 7112 25 6885 24 6768 23 6415 22 6362 21 6653 20 6792
6696 3.7776552884764794 0.76612729675970781 2.9286965483736807 227 208 160 1.1782727569916032 27 7112 26 7059 25 6803
6695 3.6276498284405458 0.76468867800812546 3.2416697229612086 219 203 180 1.1781772235565131 27 7065 26 7023 25 6768 24 6624
6693 2.9425768528474454 0.76824869433208709 3.530245065386223 63 88 28 2.0844362111976262 27 5425 26 7006 25 5165
6692 4.7420938666392516 0.74301697087710694 3.0517425205568904 190 197 130 2.0760667327744571 27 7058 26 7002
6690 2.4851550073624549 0.77264418891683229 3.7662715901066464 107 126 70 1.6706689460367099 26 6979 25 6744
6689 2.7639245866267865 0.75551044500841269 3.5842585310849477 50 73 20 0.72377117190211104 25 6738 24 6613 23 6237 22 6222
6687 3.9888345352634689 0.74398853228787376 3.3885372457284175 214 207 179 0.95933571532384276 27 7024 26 6969 25 6725
6684 4.2918403867735986 0.73345079067921948 3.3214641342209426 142 140 88 1.6206694989719468 27 7021 26 6954 25 5086
6682 4.2442187533349909 0.72992018766753508 3.4000859404271702 108 108 49 1.9978803240291443 27 7005 26 6944 25 6693
6681 3.035365730460041 0.74101360467098398 3.7141990373587892 233 217 197 0.97200824258730034 26 6936 25 6707 24 4966 23 4633
6680 3.870433146546965 0.72435029872447154 3.5492075872199971 201 189 173 0.2514663645550545 27 6977 26 6928 25 6686
6679 3.0305367839818853 0.73409446547143831 3.7518701162596395 98 110 67 0.83787654178090298 26 6927 25 6692 24 6556 23 6177 22 6159 21 6437
6678 3.4563357397449335 0.72150862074750366 3.6377556922988239 79 100 35 0.6221894822389783 27 6970 26 6925 25 5047
6677 2.599698263961133 0.74844532310030143 4.003290877696231 187 203 141 1.4763723792428209 26 6918 25 6689
6676 3.1387959607021534 0.71286830155885594 3.9120191319073578 130 128 86 1.3195813152475049 27 6938 26 6899 25 6659 24 6505
6675 5.2555258602859949 0.77487250491300497 4.4464979111641885 235 232 223 1.8562773847478191 27 6913 26 6864 25 4911
6674 2.4871472681972056 0.7047221447803369 4.4682609077918212 193 185 164 1.2483137436723588 25 7653 24 7518 23 7109 22 7700
6673 5.5118150742048728 0.76252035083012959 4.4646840627463416 242 242 230 1.6406740158636903 26 6854 25 6611
6672 5.3281956539905266 0.75875215095501058 4.5517752875638164 242 239 230 1.549127341440018 27 6898 26 6844 25 6603
6671 3.4374459102098633 0.7452936117384783 4.9847971821798049 234 232 220 1.0817633405076446 27 5169 26 6831 25 6601 24 6445 23 6051
6670 5.2226461236557578 0.74594849716352518 4.7168073237743311 180 177 171 0.952626062506993 27 6877 26 6823
6669 3.087551331429025 0.73468087822878758 5.5303567635962922 149 147 137 1.2237899214328873 27 5090 26 6794 25 6558 24 4694 22 5990 21 6296 20 6457
6668 4.6574870327743811 0.72523009553279172 5.6127643480248972 235 231 222 0.82057068128163291 29 2713 26 6763
6667 3.7664638431007487 0.72417124651273801 5.8324090110146765 149 152 151 0.60169466601455057 27 6802 26 6762 25 4764
6665 6.5311627180033378 0.69953280624979253 5.4400458272337948 218 214 203 1.9719734709499408 26 6742 25 6483 24 4551
6664 6.2048009135662818 0.69441363087251062 6.068006959621659 126 128 127 1.7945276246166799 27 6767 26 6721 25 6464 24 4519
6662 2.3975446070844457 0.5399351269094298 5.5489962350774817 178 194 213 1.3696477261201874 26 6708 25 4676 24 4521 23 4225 22 4218
6661 7.0249349211965395 0.68720816057026535 6.4315791942964875 172 169 166 1.7265599243400018 26 6703 25 4658 24 4493 23 1914 22 1859
6660 6.3145906741621465 0.67839525256895217 7.118237224803182 171 167 158 0.5051819371164219 27 4911 26 6687
6659 2.5710641155275584 0.60558430482685077 8.1697571240734916 142 147 153 0.78672879368990911 27 6664 26 6644 25 6387 24 6225 23 6982
6658 2.8915197404005042 0.5019146404067526 6.9282200532334697 176 213 175 0.74706905209801244 27 6651 26 6629 25 4565 24 6208 23 5802 22 5784 21 6112 20 6270
6657 1.4158104190831771 0.53200718767767829 7.7151150305417806 76 83 67 0.43207232508730647 27 6647 26 6627 25 4569
6656 3.8775063918602002 0.59732920786127708 9.140554843764642 212 212 210 0.72797207453097001 27 6623 26 6611 25 6347 24 4387 23 4094 22 4085 21 4335 20 1957 19 1958
6655 1.4818135129925076 0.47091946275210272 7.9374707657339556 85 91 89 0.7182275540966927 27 6608 26 6602 25 6339 24 7339
6654 2.1480138605011923 0.44895748050623041 8.3860521078198289 50 54 65 0.28075656707935698 27 4735 26 6569 25 6313
6653 2.7036944613988725 0.39218356106009017 9.1120378770419528 100 98 112 0.30544503764204556 27 6541 26 6531 25 6271
6652 1.75544573458791 0.32634519912696441 8.421582420116458 88 91 106 0.41422568471141746 27 6527 26 6520 25 7438 24 7278 23 6889 22 6835
6651 6.5229536600331999 0.31553297028041233 6.8699505850164453 179 186 196 0.5882901971654616 28 8215 26 6519 25 7435
6650 5.7714260829681798 0.28720806791675307 6.645438770692957 118 117 131 0.90614283412324381 27 4654 26 6517 25 4385 24 1659
6649 1.595534242435859 0.31481601777954293 8.5237988060036596 51 53 66 0.52028661340619586 27 6521 26 6511 25 6247 24 7274
6648 3.5562245608690159 0.39704243862318284 11.274653444558892 110 106 115 1.1577469418644324 27 6513 26 6492 25 6224
6647 4.7312575758269571 0.28008201625665707 8.1695332278805761 73 75 68 0.2853591197260037 35 5643 26 6489
6646 8.4628205087793233 0.38290179096866145 10.3307663839957 132 129 140 1.8345016249562012 33 3814 26 6478 13 4253 10 4512 9 4418
6645 5.0910595541459438 0.24993585412170119 8.2173803425412739 32 30 33 0.76246565842878622 27 6490 28 8189 26 6472 25 6201 23 5637
6644 5.0910595541459438 0.24993585412170119 8.2173803425412739 32 30 33 0.76246565842878622 27 6489 28 8190 26 6471 25 6200 23 5638
6643 5.6991161841022722 -0.018611093434355606 6.617449862618404 63 56 64 1.3301342872847473 27 7704 26 6423 25 7383 24 8021 23 7579 21 7831 20 8013 19 7216 22 6773 18 7392 17 7598 16 7557
6642 2.9373812812130522 -0.4553493150625943 14.66395746764144 73 69 57 0.29631348723369344 27 6380 26 6342 25 6064
6641 4.270453046621796 -0.48044722916111166 14.572791163681277 69 67 68 0.95884325274128668 27 6373 26 6336 23 3712 20 4086
6640 2.626313008340396 -0.6339780395078608 15.147290121938275 109 89 57 0.40431723786082091 27 7638 26 6312 25 6028 24 7174 23 6782
6639 8.81694767058816 -0.53342565239491213 11.639511569919446 18 22 20 0.5811138643253364 28 6712 29 6769 26 6308
6638 2.183620753343003 -0.53706725739886529 11.667551746171711 57 57 40 0.33986649939765284 27 6336 26 6307 25 6024
6637 5.9593177767913428 -0.65641208095842729 13.280408297863234 45 49 50 0.38533982177439713 27 6317 26 6290 25 6013
6636 2.2494046133041561 -0.59550057768209186 11.784145643649124 62 60 42 0.63142645106678064 27 4304 26 6289 25 6010
6635 5.9294123642455547 -0.44879656174917193 7.5564603401270274 74 72 83 1.1806135321911768 27 6314 26 6287 23 5494 24 5893 22 5486 18 6125
6634 4.4711032989572388 -0.75826073162975871 12.688867094481727 78 64 53 0.61634013614921546 27 6287 26 6261 25 5978 24 5856
6633 4.4771385575701395 -0.8355216569409144 12.114391786628582 53 45 56 0.54330546625372489 27 6250 26 6232 25 5952 24 5832
6632 3.7440147622760742 -0.80391141546893619 10.650141403268325 46 63 44 1.6573197572460248 27 6238 26 6224 25 7262 24 7123 23 6729 22 5417 21 5714
6631 8.193299979228529 -0.93982264296104745 12.600513553275222 28 29 31 0.75436069440399967 27 6230 26 6222 25 5942 24 5816 23 3535 22 3504 21 3743 20 3914 19 3857 18 4022 17 4055 16 3994
6630 6.3609477608565062 -0.98835817361495482 13.434253530453669 114 136 70 0.1630498882604744 27 6228 26 6219 25 5938
6629 8.2030967761173823 -0.97987629783651709 12.582282193377772 53 58 58 0.20978538299335722 27 6213 26 6215 25 3900
6628 1.8809142806086805 -0.92018930031516666 10.664166397483623 58 86 48 1.4527197277609596 27 6186 26 6187 25 3856 24 3721 23 5366
6627 2.5494386198392904 -0.9706683195015916 10.631053629983107 40 52 38 0.85120286772275766 30 6512 26 6167 31 6026 25 3836
6626 2.3015111115150373 -1.0115053353065875 10.624816932103055 34 51 30 1.1917183454895306 27 6160 26 6149 25 5866 24 5746 23 5338 22 5348
6625 12.44807235868295 -1.785005083971871 19.420980252519843 101 82 92 1.0809746693989275 32 5493 26 6144 25 5870
6624 2.2422727938895828 -1.0670331282744869 10.7463840164588 36 63 31 0.88542307757521399 27 6149 26 6141 25 5852 24 5730 23 5330 22 5333
6623 12.449658062540379 -1.8734900949780282 19.661378778287119 105 96 113 1.2079747428789791 33 5316 26 6132 25 5855
6622 6.4587900279638975 -1.4529527939887552 14.626081830404704 91 74 93 0.50591801234917655 29 4378 26 6125 25 5847 23 5334 21 5654
6621 4.6880313846683448 -1.2659216819109964 11.786884743886482 57 69 57 0.55564579361874877 29 4352 26 6109 25 3766
6619 8.6677348335009796 -1.430157475729086 12.971897169494385 61 71 42 0.31198907291831768 27 7489 26 6099 24 3639
6618 7.151738300482422 -1.770549055397564 13.195892645883955 52 62 61 0.60698815975901121 27 6005 26 6008 25 5737 24 5624 23 5220 22 3263
6617 7.151738300482422 -1.770549055397564 13.195892645883955 52 62 61 0.60698815975901121 27 6006 26 6007 25 5738 24 5625 23 5221 22 3264
6616 3.1253000410354872 -1.4898358740493096 10.952367508313445 57 86 48 0.90001582744221764 27 6002 30 6353 26 6001
6615 6.596900964003872 -1.9654325528129344 13.021199939257416 244 244 242 0.39115643000874872 27 5932 26 5933 25 5659 24 3406 23 3232 22 3172
6614 0.68941076705337057 -2.0879050586880861 14.356612189045238 248 255 254 0.56969797279161816 27 5929 26 5910 25 3474
6613 7.9617501119743235 -2.0387836735033988 13.05271351232739 213 220 225 1.5545178684552583 30 6255 26 5907 29 6317 31 5775 25 5647
6612 0.51002449072666811 -2.0306220597753515 13.504338135009137 221 230 235 0.25666617671842068 27 3808 26 5890 25 5610
6611 8.0066023483445807 -2.1416342233066974 12.947391092989371 53 37 64 0.75292082218496004 27 3756 29 3986 26 5874 25 3439
6610 6.6022398681701082 -2.1616369812712994 13.132522101727117 130 144 131 0.85785807916581691 27 5869 26 5862 25 3425
6609 6.4523934182932861 -2.6480194525005278 16.535578684250709 255 255 253 1.9589865855883819 27 7357 26 5851 25 3410 23 5101 22 5102
6608 5.1180143674853058 -2.2023822352216151 13.142232729621309 72 86 85 0.28045740531368224 27 5844 26 5840 25 3396 24 3271
6607 9.0052630087769554 -2.1666918003710527 12.181399664374895 72 86 79 0.95548182867088283 27 5823 26 5824 24 3287 22 3108
6606 8.4900776807114084 -2.1475211917910082 11.976193753119372 250 253 254 0.95098071569551168 27 5818 26 5815 25 5567 24 5473
6605 6.3843997997705104 -2.9331637633396612 16.449862098558842 92 95 100 0.21643686594607908 27 5773 26 5768 25 5520 24 5420 23 5043
6604 8.4770118762247524 -2.7305920873187381 12.587351388851333 47 52 55 0.3950753024279261 27 3441 26 5690 25 5435
6603 6.3436510620100988 -3.3691960798381881 16.270199560630143 110 118 118 0.84803868058258003 27 5662 26 5686 25 5418 24 5319 23 4935 22 4939 21 5248 20 3191 19 3116 18 3268
6602 2.5176226896584657 -2.315667779706208 10.850718544737992 61 81 53 1.0278286020081648 27 7214 26 5683 25 7847
6601 7.8225940129939113 -2.9449069053726542 13.149085594985861 68 67 64 0.89379858769101284 27 7188 26 5663 25 6904 24 5300
6600 6.0264996152155508 -3.5019127590417085 16.317524784239044 128 132 125 0.54475843453059869 28 5944 29 6029 26 5659 24 3035 23 2918 22 2849 21 3057
6598 3.0501256312155909 0.77779405488579745 3.2449889433756307 78 93 24 2.1924073038483294 27 5489 26 5536 25 5245
6597 2.4467256195929794 0.78476682856327395 3.6682564702617464 111 114 71 1.9100339803703792 26 5468 25 5182
6596 2.8808684323947626 0.76493482599938911 3.5762896988300419 238 229 199 1.0905302274708422 26 5458 25 5153 24 5034
6595 3.4351809560402584 0.75105305555937618 3.461435492449787 230 217 203 0.439967476585779 27 5407 26 5446 25 5134
6594 3.4151419805023422 0.75124063112301265 3.462189889397246 235 227 209 1.0878392558524361 27 5406 26 5445 25 5136
6593 4.5223810003059537 0.73973668346878241 3.2306752787213329 83 101 39 1.9559394542090032 26 5441 25 5105
6592 3.9659893776093145 0.73755105163378065 3.3762621794999816 205 200 168 0.82061814350850482 27 5399 26 5421 25 5101
6591 3.3896922490052526 0.74200936277437379 3.5381530265311638 241 229 206 0.77629505609084648 27 5383 26 5416 25 2802 27 2996 24 2605
6590 2.2590088504399293 0.7655221435129409 3.8369675290325582 74 68 52 1.3640783677515671 25 5129 24 5026
6589 2.8926204485169467 0.75496301804902977 3.7988635225480718 225 209 192 2.0536154569953826 27 5354 26 5396 25 5099
6588 2.8537108908124424 0.74941080111579483 3.776542569976352 90 92 44 1.5530591057241601 26 5387 25 6713 24 4979
6587 2.8549340073932488 0.75327703469922125 3.8276913942415756 90 92 44 1.9583864547147964 27 5341 26 5386 25 6714
6585 4.1465529209897962 0.72889346989430659 3.7190500735462537 255 255 251 1.0558726041421169 27 5304 26 5302 25 5000
6584 3.3666068770641071 0.70560436076731858 3.8091032062789703 156 165 102 0.99870831088246559 27 5285 26 5287
6583 3.1301223904347077 0.70294181204966077 4.0693040955007405 216 209 183 1.0303240117205987 27 5265 26 5265 25 4959
6582 5.4299972322642951 0.77950011466907576 4.1836754824878168 220 218 205 1.5355321513262723 27 6931 26 5259
6581 5.3555518653488221 0.76906533044433467 4.4045146749039192 242 238 229 1.2841545079837493 27 5251 26 5236
6580 2.9306646717836555 0.69132477366050515 4.3347064213022897 172 207 105 1.5020356298848359 27 5208 26 5234 25 4932
6578 3.738194586344346 0.75043019332012595 4.7220272048291525 188 185 178 0.36300712600938406 27 5210 26 5212 25 2543
6577 2.5527779997319806 0.70124889414719582 4.5677593739606923 149 155 100 1.5553346622218562 27 2717 26 5207 25 4917
6576 3.7679482663954111 0.75002868006795465 4.7370032631445653 129 129 121 1.1123274196345487 27 5211 26 5203 25 4905 24 4796 23 2260
6575 3.7307987605748343 0.76272102737581882 4.8439662714033176 187 187 179 2.0029524879532494 27 5209 32 2105 26 5202
6574 2.3265550545712999 0.70453036604442087 4.6568731781305841 202 202 132 1.865341163295831 27 5181 26 5201 25 6618
6573 5.833944430931485 0.75628731320671327 4.4452426767659325 239 237 225 2.3535394049533838 27 6903 26 5192 25 6596
6572 5.4302588780299947 0.75387570731777398 4.6134679454610739 175 175 165 1.0430697148248196 27 5198 26 5186
6571 5.4302588780299947 0.75387570731777398 4.6134679454610739 175 175 165 1.0430697148248196 27 5197 26 5185
6570 3.4958185384828742 0.73732884374614904 5.0961826458727391 240 238 226 0.94764084505524349 27 5147 26 5155 25 4848 24 4741 23 4431 22 6013 21 6312 20 6463 19 6378 18 6597 17 6733
6569 3.0325401593917167 0.73836411566312632 5.2083488368428315 192 191 181 1.0398855179953244 27 5137 26 5152 25 4852
6568 3.0325401593917167 0.73836411566312632 5.2083488368428315 192 191 181 1.0398855179953244 27 5136 26 5151 25 4851
6567 1.7308533551195779 0.70269419956261259 5.2210975985732366 57 80 36 1.6048867786661256 27 5115 26 5145 25 4856
6566 3.2912085719262731 0.73728028106537125 5.2228542638210751 243 240 231 0.57320293728305083 27 2633 26 5143 24 2320 23 2209
6565 2.2343693050119486 0.67552112173231582 5.0182116066104392 78 96 46 1.6764217429603954 26 5128 25 2457 24 2318 23 4445
6564 3.7529005048687858 0.55316978098651981 3.8098105073951718 118 136 137 0.35710011944121706 27 6838 26 5124 24 6402
6563 3.6587861060533693 0.73466506934170328 5.4699243724617261 232 228 217 0.50256811361787623 27 5095 26 5113 25 4808 24 4677
6562 3.2127602155870436 0.71820530411520656 5.6497496004516305 242 238 227 0.95788662834429272 27 5063 26 5090 25 4787
6561 5.60864559291036 0.7286986644461374 5.3522822943754935 230 221 212 1.1261637472862134 27 5074 26 5079 25 4767
6560 5.9463239283022409 0.72304260401440912 5.2490512392688338 224 220 208 1.2232581052577054 27 5075 26 5076 25 4766
6559 4.734124727350971 0.72129138529535608 5.5780574791681481 223 223 215 0.093138989583761655 27 5057 26 5066
6558 2.2492251791204319 0.67203203258468336 5.6805901207568317 131 152 183 1.5107314210116205 27 5026 26 5063 25 4769 24 6384
6557 1.4584374200229007 0.64688662338610536 6.3827579064011362 56 55 44 0.88847937139623445 27 4970 26 5003 25 6472
6556 1.658122252651085 0.64154113173037886 6.40651599389391 124 126 109 1.1783470079714566 27 2414 26 4995 25 4702
6555 3.5103682002168877 0.67930919798645595 6.7628966491450013 181 178 171 0.35173636679134318 27 4949 26 4977 25 4683 24 4530
6554 2.3681805443471067 0.55413827303488417 5.5243955001957561 186 199 225 1.4463765260889438 25 4684 24 4535 23 4231 22 4226 21 4506
6553 6.4067424245442162 0.68120348142258202 6.1966527905428261 210 203 195 0.54384986863408868 27 2416 26 4973 25 4673 24 4506
6552 5.0519628120491991 0.76381594600314795 7.4325108997565943 112 132 153 1.7529946548542568 28 5272 26 4972
6551 6.4567728308915679 0.68445252334202644 6.2207502538594301 202 201 189 1.0793756370673422 27 4962 26 4967 25 4667
6549 6.3436602351151761 0.67601123571348898 6.3270367246108439 104 103 103 0.75930565649066839 27 4950 26 4956 25 4660
6548 2.3345471831825582 0.62169919844126986 7.9866192488224677 132 137 140 0.57100011716763521 27 2261 26 4870 30 5128
6547 6.0041673415105876 0.51617091885360467 6.149405463424725 133 134 139 1.5309077085634655 22 1757 21 1820 20 1946 18 2059 17 1991 15 1943 14 1937 13 1814 12 1800
6546 5.6054724783579131 0.5063064476969108 6.6735443664370679 213 202 192 0.47574006590222018 34 1453 26 4824
6545 2.5737555374784162 0.55807518729853789 8.425032802327177 62 68 77 0.31523580822812941 27 2179 26 4814 25 4543
6544 5.4594343410313018 0.58645871999689314 8.3485311652011411 72 71 70 0.67489722201125613 27 4799 26 4807 25 4534 24 4388 23 4088 21 4320 18 2068
6543 1.4639569284170209 0.49605092002428908 7.8620838839311951 70 78 85 0.69567064322967953 27 4787 26 4805 25 6354 24 6197
6542 5.4354594024173863 0.56745376810683101 8.3346712189361707 106 95 91 0.34683269686392459 27 4788 26 4800 24 1854
6541 2.3361720975255991 0.50508382671785035 8.2924211126177774 82 83 87 0.48004561501660103 28 5081 26 4793 25 4523
6540 2.7444161387183716 0.42766604896401633 9.0909308245572884 25 27 40 0.20472634035938442 27 2062 26 4728 25 4451 23 4016
6539 1.3190286617674329 0.33893356482544779 8.4303690043786688 66 69 80 0.2538031858956955 27 4660 26 4696 25 1865
6538 1.7157676035899005 0.32245370113914767 8.5327824497855183 45 48 57 0.27633720044051574 27 2001 26 4670 25 4395 24 4247 23 3972
6537 1.4398886835678715 0.30068198997929602 8.4406970451989594 155 165 177 0.31746732233032121 27 4633 26 4663 24 6098
6536 2.4518336903154343 0.34010377701121436 9.2399638793661882 67 75 94 0.093806904157196294 27 4634 26 4659 25 4382
6535 4.3361843739010384 0.30217507107766417 8.1555323447227543 75 70 71 0.4237698116795679 28 2115 26 4656 25 4364
6534 4.3807667559877412 0.42400236286813492 11.676987522374969 243 244 246 0.49146910671809596 27 4612 26 4643 25 1804 24 1653 23 1576 22 1553 21 4152 20 4354 19 4278 18 4448
6533 3.7886246126611485 0.39876874204776519 11.342267535824897 169 173 172 1.6342068969288599 27 4611 26 4642 25 4355 23 3929
6532 4.2722676455283315 0.42034794202956494 11.804807670852689 181 182 182 0.46163070164459219 27 4610 26 4635 25 4358 24 4219 23 3932
6531 4.0898036159394149 0.41250844127919822 11.885754914522408 176 177 179 0.47592270582350782 27 4602 26 4621 25 4351 23 1565
6530 4.3064321384166062 0.39732890659330661 11.819651976208538 232 234 231 0.70160907229037339 27 4598 26 4615 25 6216 24 6075 23 5667 22 3913 21 4134 19 4240 18 4425
6529 4.397421181993117 0.39489660890191419 11.91152445609803 182 184 182 0.59389065154299903 27 4595 26 4611 25 4344 24 4202 23 3898
6528 2.2046067979993524 0.26138060337762642 9.1641516658277133 97 103 119 0.41260059780076508 27 4584 26 4603 25 4330 24 6066 23 5655
6527 2.1808250514189758 0.24496098189855703 9.224704105072286 61 66 79 0.45091593594606338 27 4577 26 4596 25 4325 24 4171
6526 4.2989253481513607 0.35785402804092636 12.473693446854092 207 187 178 0.2402004520279323 27 4574 26 4588 25 4318
6524 1.1544152190818633 0.21577313845124579 9.6167888075465218 69 65 67 0.16326686904684853 27 1895 26 4574 25 4308
6523 4.3429005388855826 0.11899252019911237 5.7915377178108152 110 108 109 0.88730932070834256 27 4550 26 4569 24 4138
6522 3.4511376484927676 0.22185014630729508 12.652652413377304 47 40 47 0.97362428867728767 27 1875 26 4544 25 4280 24 4137 23 3843 22 3824 21 4063 20 6067 19 6047
6521 1.5847508769740535 0.15727686265640953 13.399521511595001 77 67 79 0.42803040653400898 27 4528 26 4530 25 4260
6520 2.4688445074732726 0.10511203165831973 13.111867993724923 39 35 44 1.4235295732333051 29 4885 31 1552 26 4520 22 6778
6519 5.8640622619529479 -0.026854985406039134 6.7340366192649599 56 43 50 1.2696751609739942 28 4780 24 1505 23 1396
6518 5.7792223041333113 -0.031317120830948446 6.6295840087860229 88 74 73 1.1041976129799993 28 1931 29 4846 26 4503
6517 8.0716636008997948 0.0061811229050600467 11.132024393582391 22 33 25 1.580863424082116 29 4851 26 4500 30 4747 16 4264 18 4288 3 1409
6515 5.5385013992339545 -0.065079645336076339 9.2003470891954411 79 63 63 0.08445829073421654 27 4476 26 4484
6514 4.6561259762353968 -0.097223945095643402 8.271878944377665 143 123 115 1.1745304704533825 28 4752 26 4473 23 3797 16 7551 15 7453 13 7320 12 7301 10 7641 7 7811 6 7896
6513 1.497355082240807 -0.14317832504441452 13.353829045419262 48 46 60 0.38140321250033754 27 1784 26 4469 25 4217 24 4080
6512 1.5708712641054072 -0.36231701355870649 14.521260059960547 60 62 74 0.4077411876952286 27 4426 26 4430 25 4164 24 4047
6511 1.019575172793669 -0.39477329841043018 15.321084008569143 43 42 46 1.8132687775478655 27 4414 26 4422 25 4160 24 4037
